0.175467 -0.106105 0.286416 
0.080415 -0.312807 0.461716 
0.199613 -0.254206 0.257836 
0.156269 -0.098567 -0.270865 
0.203904 0.175752 -0.351711 
-0.177899 -0.222983 0.306432 
0.159911 0.026624 0.055975 
0.186769 -0.139296 0.073148 
0.017987 -0.308141 0.437317 
-0.066328 0.269490 -0.041530 
0.205927 -0.120337 0.176783 
-0.050603 0.039230 0.186733 
0.249716 -0.228865 -0.373023 
0.221382 -0.291293 0.313487 
0.218636 -0.210250 -0.318240 
0.170551 -0.005634 -0.186242 
0.186625 -0.160514 0.086388 
0.164087 0.226616 -0.282056 
0.337258 -0.252256 -0.301210 
-0.153009 -0.164743 0.237358 
-0.038415 -0.092264 0.242237 
0.026988 0.175043 0.021262 
0.042042 0.326617 -0.226230 
0.032533 0.135100 -0.055590 
0.199088 0.167273 -0.340754 
-0.173326 -0.109615 0.204432 
0.212694 -0.102399 -0.134556 
0.129769 0.074973 -0.196040 
0.189744 0.034149 -0.341594 
0.111793 -0.223836 0.231183 
0.211599 0.216063 -0.404645 
0.300382 -0.282156 -0.341908 
-0.018635 -0.118416 0.259983 
0.104393 -0.106868 -0.138780 
0.104749 -0.170128 0.150211 
0.207631 -0.119689 0.203506 
0.180822 0.014438 -0.263414 
0.094099 0.150343 -0.061614 
-0.000735 -0.048215 0.058092 
0.141528 0.137922 -0.170566 
0.071048 -0.200446 0.236892 
-0.082209 0.005473 0.150049 
0.022134 0.233236 -0.093123 
0.246650 -0.126642 -0.372891 
-0.336449 -0.253328 0.257912 
-0.118620 -0.265866 0.446662 
0.241494 -0.248205 -0.063023 
0.142832 0.157955 -0.290112 
-0.042773 0.319339 -0.114253 
0.018394 0.218859 -0.140336 
-0.151660 -0.092905 0.194084 
0.192618 -0.037363 0.075426 
0.198746 -0.129497 0.242394 
0.084405 0.180855 -0.199576 
-0.173614 -0.241654 0.307698 
0.135792 0.198172 -0.345717 
-0.034920 0.318927 -0.159213 
-0.053892 -0.077445 0.263735 
-0.018460 0.280520 -0.189234 
0.071434 -0.240560 0.367311 
0.202243 0.185420 -0.328401 
0.133091 0.135914 -0.243426 
0.250901 -0.227482 -0.378848 
-0.105939 -0.105529 0.245929 
0.167086 -0.021495 -0.074018 
-0.120837 -0.137373 0.225677 
0.279293 -0.149048 -0.453824 
-0.299129 -0.180422 0.225752 
0.139378 -0.166348 -0.209597 
0.019219 0.129939 -0.017183 
-0.008820 0.155119 0.003657 
0.148058 -0.184988 0.365891 
0.252104 -0.278988 -0.113486 
0.108478 0.219458 -0.293839 
0.144433 -0.192935 0.127747 
-0.223984 -0.273356 0.304115 
0.178490 0.019871 0.092529 
0.256367 -0.091588 -0.441696 
0.075038 -0.119728 0.104114 
0.091171 0.054954 -0.103341 
-0.282178 -0.265055 0.246318 
0.096347 0.202330 -0.174798 
-0.019047 0.166892 0.005189 
0.037325 -0.274607 0.482147 
0.210437 -0.205839 0.390953 
0.157829 -0.022348 0.124462 
-0.025264 0.272943 -0.155157 
0.130822 -0.234022 0.480906 
0.206426 -0.201248 0.391903 
0.110802 -0.288770 0.384414 
-0.248742 -0.131487 0.226159 
-0.104838 -0.085654 0.259538 
0.223583 -0.106095 -0.250009 
0.181644 0.092393 -0.307723 
-0.004274 -0.043320 0.058411 
-0.149584 -0.251315 0.337667 
0.153524 -0.139319 0.032555 
0.244119 -0.137099 -0.290336 
0.172943 0.040270 -0.285185 
-0.192879 -0.098196 0.246804 
0.129619 0.067247 0.017916 
0.256104 -0.280254 -0.119717 
0.172392 0.108221 -0.346207 
0.250205 -0.181950 -0.097584 
0.178287 0.020566 0.099006 
0.194810 -0.079982 -0.105577 
0.235330 -0.267550 -0.243223 
0.223427 -0.299504 0.319793 
0.202352 -0.053312 0.188423 
0.176111 -0.233862 0.459706 
0.237410 -0.194216 -0.407794 
0.224632 -0.226871 0.392535 
0.136123 -0.305022 0.471879 
0.058762 0.218773 -0.137818 
0.133688 -0.314260 0.417244 
0.144049 -0.039214 -0.186865 
0.210963 0.009428 -0.404892 
0.008674 0.170634 0.054991 
-0.037389 0.318727 -0.153747 
0.043271 0.179804 -0.013403 
-0.143496 -0.064815 0.225577 
0.130333 -0.106885 0.300053 
0.094401 -0.208373 0.225039 
0.082367 0.216482 -0.234924 
0.183989 -0.055207 -0.119396 
0.289767 -0.313776 -0.194445 
-0.068237 -0.010240 0.122020 
0.179289 0.081301 -0.367452 
-0.102985 -0.013195 0.229312 
-0.182663 -0.304390 0.359024 
-0.041383 0.285581 -0.174534 
-0.233768 -0.192334 0.277975 
0.009470 0.175159 -0.065196 
0.080403 -0.257970 0.462412 
0.212735 -0.086975 0.228194 
0.189771 0.075650 -0.360172 
-0.015554 0.178842 -0.010187 
0.210101 -0.310681 0.374137 
0.235932 -0.266661 -0.150343 
0.296258 -0.158376 -0.436331 
0.202269 -0.212184 0.225643 
-0.216959 -0.249253 0.325998 
0.144306 0.190820 -0.379672 
0.098330 -0.310717 0.431297 
-0.112769 -0.285828 0.385253 
0.183749 -0.078594 0.040688 
-0.019891 0.063280 0.131034 
0.179205 -0.099110 -0.369038 
0.104084 -0.112729 -0.133919 
-0.098273 -0.047462 0.163043 
0.077629 0.061288 -0.081502 
0.192022 -0.161452 0.200159 
0.225287 0.163103 -0.415875 
-0.185614 -0.194495 0.285240 
0.033319 0.247960 -0.200955 
0.251479 -0.142251 -0.207569 
-0.106696 -0.060657 0.168988 
-0.064750 -0.041834 0.251269 
-0.081535 0.286314 -0.075460 
0.110408 -0.004334 0.102652 
0.020772 -0.058756 0.111902 
0.111000 -0.114339 0.311391 
0.060737 0.259520 -0.197688 
-0.026274 -0.303896 0.424443 
0.233623 -0.190090 -0.404724 
-0.064997 0.302827 -0.063212 
0.132871 0.066940 0.003011 
0.045734 -0.012469 -0.003095 
0.341606 -0.281313 -0.297076 
0.203322 0.215583 -0.420219 
0.158597 -0.227356 0.467961 
0.228166 -0.231905 0.389909 
0.000872 -0.131103 0.197172 
0.155589 0.163499 -0.354737 
-0.084836 -0.271940 0.404878 
0.036066 -0.054456 0.019444 
0.191942 -0.068192 -0.137813 
0.110448 -0.010012 -0.115446 
0.007516 0.298026 -0.154499 
-0.000000 0.245661 -0.143851 
0.226980 -0.118307 -0.147784 
0.138040 0.090290 -0.223365 
-0.058166 -0.086271 0.141536 
0.057914 0.069398 -0.046282 
-0.004094 -0.053209 0.130291 
0.231684 0.138215 -0.445032 
0.163619 -0.070731 0.154665 
-0.014075 0.015149 0.143995 
0.154691 0.136112 -0.204010 
0.172560 0.130117 -0.429967 
-0.023471 0.149341 0.046416 
-0.031765 -0.016360 0.086019 
0.049775 -0.067098 0.109267 
0.197573 -0.079787 0.080951 
-0.115434 -0.033153 0.231509 
0.272076 -0.239647 -0.084314 
0.124985 0.086691 -0.194357 
-0.001582 0.200403 0.008710 
-0.000146 0.283567 -0.235337 
0.130190 -0.014375 -0.154501 
0.217507 -0.101131 -0.195422 
0.159011 0.013803 -0.096134 
-0.000555 0.055235 0.076481 
0.197078 -0.150466 0.147210 
0.053009 0.208563 -0.105721 
0.114511 0.310677 -0.334022 
0.164063 0.006634 0.005190 
0.224347 -0.203511 0.327417 
0.155314 -0.215485 0.439808 
0.125530 0.115966 -0.074285 
0.154317 -0.103964 0.191478 
0.259324 -0.157017 -0.315191 
0.153750 0.284622 -0.317981 
0.266112 -0.163873 -0.259366 
-0.277106 -0.173635 0.230789 
0.225142 0.204857 -0.386756 
0.127258 0.032880 0.106427 
0.332951 -0.258340 -0.258516 
0.269560 -0.173128 -0.198935 
0.120849 0.205416 -0.302680 
0.312437 -0.237720 -0.384990 
0.319431 -0.244711 -0.245697 
0.180457 -0.218488 0.102323 
0.178739 -0.276913 0.456889 
0.087019 -0.216640 0.371337 
0.228093 -0.255644 0.276720 
0.091924 -0.168192 0.314361 
-0.201776 -0.310662 0.366575 
0.079843 -0.216468 0.360371 
0.172849 -0.194346 0.399462 
0.146058 -0.257284 0.253089 
0.077486 -0.288463 0.494993 
-0.020274 -0.038440 0.072740 
0.150692 0.049903 -0.062688 
0.169715 -0.082216 -0.279588 
0.174704 -0.242942 0.466073 
-0.089220 0.009828 0.169241 
0.201326 -0.227820 -0.179956 
-0.018098 -0.090134 0.143775 
0.083122 0.000220 -0.066903 
0.165969 -0.172140 -0.235276 
0.111727 -0.199508 0.183646 
0.235567 -0.182691 -0.424678 
-0.225205 -0.189784 0.249440 
0.162101 0.081530 -0.201305 
-0.166419 -0.288585 0.352444 
0.185476 0.005615 -0.326267 
0.222649 -0.202036 0.295966 
-0.309340 -0.260755 0.230042 
0.289862 -0.284827 -0.332436 
0.230086 -0.215056 0.345671 
0.234384 0.114769 -0.450524 
0.189554 -0.190276 -0.220153 
0.070828 -0.072173 -0.031057 
0.115460 -0.131344 -0.108300 
0.236932 -0.223102 0.290288 
-0.097582 -0.075111 0.264441 
-0.052058 -0.273754 0.418358 
-0.043812 0.047445 0.175245 
0.216932 -0.309808 0.358021 
0.070031 -0.207853 0.250018 
0.250188 -0.144503 -0.277249 
0.229902 -0.008322 -0.436355 
0.215997 -0.229770 -0.077249 
0.033771 0.153596 0.064400 
0.032200 0.019823 0.016127 
0.003237 -0.307039 0.435764 
0.059128 -0.234458 0.335909 
0.185887 0.142203 -0.303499 
0.223406 -0.215892 0.262574 
0.185111 -0.035048 -0.338264 
-0.316618 -0.149365 0.257792 
0.182146 0.076990 -0.399057 
-0.185419 -0.298237 0.351234 
-0.031515 -0.114667 0.200822 
0.049663 0.161940 -0.125051 
0.238873 -0.128005 -0.233153 
0.181880 0.039926 -0.294126 
0.148617 0.048012 -0.028718 
0.164290 -0.140065 -0.305660 
0.166920 -0.200308 -0.168331 
0.199652 0.180869 -0.321446 
0.179919 0.101387 -0.448946 
0.073644 -0.233661 0.369010 
0.120858 -0.256134 0.315029 
-0.078268 -0.020705 0.136682 
0.091241 -0.043290 0.108025 
0.115544 -0.291771 0.387382 
0.199968 0.067850 -0.489531 
0.125371 0.024970 -0.153665 
-0.275134 -0.256792 0.251172 
0.202772 -0.104858 0.115938 
0.014714 0.257993 -0.187921 
0.169428 0.264619 -0.315837 
0.198976 -0.096979 -0.083703 
0.073221 0.112569 0.092735 
0.338778 -0.297299 -0.291147 
0.106534 0.099594 -0.166136 
0.317060 -0.298775 -0.177554 
-0.340329 -0.240317 0.245049 
0.118678 -0.032815 0.109518 
-0.340847 -0.189850 0.255658 
0.237785 -0.277133 -0.247515 
-0.167999 -0.085235 0.225718 
0.178330 0.092487 -0.379897 
0.242559 -0.044451 -0.449642 
0.070311 0.219310 -0.218922 
0.178342 0.060771 -0.328849 
0.075909 -0.217269 0.355703 
-0.003850 0.319345 -0.151385 
-0.286592 -0.283222 0.295667 
-0.021809 0.227713 -0.069003 
-0.004859 0.323683 -0.220659 
0.103030 0.190844 -0.168037 
0.204621 -0.214200 0.230286 
0.071169 0.141097 0.009968 
0.263216 -0.161861 -0.308244 
0.221454 -0.126697 -0.107067 
0.030739 -0.183062 0.244616 
-0.069383 -0.085875 0.146361 
0.190817 -0.063962 0.061906 
-0.292814 -0.181295 0.227410 
-0.225638 -0.281898 0.309425 
0.185766 -0.080744 -0.392535 
0.181935 0.061195 -0.365380 
-0.086384 -0.107472 0.225669 
0.274490 -0.298222 -0.187028 
0.005631 0.147098 0.098834 
0.191891 -0.156007 0.212393 
0.075555 0.145079 -0.007164 
0.278731 -0.284338 -0.079454 
0.157817 -0.147380 -0.282965 
0.162334 0.156156 -0.235125 
0.271129 -0.103459 -0.457405 
-0.224923 -0.271528 0.355138 
-0.203886 -0.138749 0.261292 
0.161901 -0.113188 -0.308504 
0.119642 0.189331 -0.193405 
0.142654 0.074400 -0.060156 
0.008890 0.306014 -0.162348 
0.039357 0.157896 0.041637 
0.314253 -0.233819 -0.257723 
0.181235 0.063377 -0.359527 
-0.144890 -0.273568 0.392711 
0.255148 -0.126508 -0.396387 
0.184240 -0.252242 0.199896 
0.095172 0.172926 -0.118565 
0.166873 -0.113677 -0.341883 
0.193272 -0.034322 -0.447592 
0.035231 0.204898 -0.060671 
0.039959 0.286563 -0.294572 
0.205234 -0.172874 -0.319109 
-0.020307 -0.032435 0.074434 
0.166860 -0.182051 -0.221354 
0.017800 -0.273587 0.467358 
0.039139 0.085103 0.142696 
0.055941 -0.230915 0.332245 
0.186547 -0.061944 -0.390706 
-0.288161 -0.280555 0.272906 
-0.040442 -0.113949 0.213892 
-0.062827 -0.057432 0.110272 
0.219597 0.138083 -0.469426 
-0.167289 -0.280224 0.404828 
-0.161931 -0.134571 0.257114 
-0.200655 -0.183473 0.249018 
-0.070404 0.273728 -0.040629 
0.173814 0.152709 -0.258812 
0.115527 0.236288 -0.365611 
0.322623 -0.229619 -0.347270 
0.229917 -0.266975 -0.144966 
0.182575 0.059698 -0.370853 
0.093121 -0.139517 0.211646 
0.224520 -0.262982 -0.090351 
0.209949 -0.240285 -0.173348 
0.154226 -0.236736 0.169074 
-0.135276 -0.287728 0.373827 
0.292808 -0.310235 -0.181360 
-0.075017 0.280359 -0.101820 
-0.208197 -0.249614 0.327161 
0.060314 -0.188411 0.227790 
-0.015038 0.046082 0.155739 
-0.012813 0.124299 0.099988 
0.157956 0.019266 -0.097267 
0.132996 0.303795 -0.308416 
0.172665 -0.218335 0.449224 
0.117809 -0.195769 0.361139 
-0.026523 0.317194 -0.194683 
0.194799 -0.149789 0.209409 
-0.269229 -0.131877 0.228704 
0.235598 -0.069630 -0.491557 
0.106948 -0.112641 0.056859 
0.173814 0.051698 -0.296256 
0.071794 0.010786 -0.049434 
0.177545 -0.119270 -0.378259 
0.117262 0.142558 -0.217986 
0.186145 0.069071 -0.438476 
-0.192733 -0.166480 0.271289 
0.291309 -0.150153 -0.443637 
0.017704 0.163235 0.066486 
0.089523 0.250955 -0.320892 
-0.005451 0.191211 -0.053671 
0.076974 0.228574 -0.184288 
0.101471 -0.106567 -0.119980 
-0.098623 -0.057585 0.159832 
0.198068 -0.189123 -0.237009 
-0.306040 -0.128110 0.259545 
0.327353 -0.298831 -0.203318 
-0.304653 -0.132901 0.237857 
0.162037 -0.104660 -0.302204 
0.260957 -0.156320 -0.209834 
0.039560 0.051953 0.120014 
0.175136 0.129230 -0.263255 
-0.225424 -0.185470 0.275750 
0.066366 0.167804 -0.044086 
-0.043090 -0.078664 0.121400 
-0.027346 -0.132027 0.234586 
-0.007377 0.055831 0.091722 
0.129569 0.169448 -0.183948 
0.103182 0.177022 -0.144355 
0.172746 -0.032690 -0.101379 
-0.049925 -0.086217 0.137748 
0.003242 0.182664 -0.062289 
0.179729 -0.071097 -0.321250 
0.234986 -0.222435 0.345472 
0.193254 -0.121745 0.091912 
0.234355 -0.160810 -0.448691 
-0.033116 0.265314 -0.117099 
0.124253 0.158283 -0.156594 
0.172726 -0.250293 0.169086 
0.210165 0.072459 -0.419173 
0.166100 0.173752 -0.251727 
-0.076260 -0.043920 0.124700 
0.050633 -0.033585 -0.007671 
0.203760 -0.192985 0.235402 
0.208819 0.153676 -0.468639 
0.149419 0.058332 0.101278 
0.278370 -0.188919 -0.194240 
0.288350 -0.289763 -0.098502 
0.009676 -0.126903 0.180612 
0.193814 0.234610 -0.410161 
0.156349 0.074268 -0.255650 
0.108260 -0.104502 -0.157594 
-0.162980 -0.277439 0.347494 
0.020699 0.239846 -0.169865 
0.257268 -0.259303 -0.344808 
0.197293 -0.012030 0.142976 
0.018669 0.291384 -0.167056 
0.204338 -0.125960 0.163169 
-0.303009 -0.258024 0.313170 
0.034571 0.229619 -0.110902 
0.048309 0.175183 -0.015892 
0.108746 -0.164765 0.138866 
0.255237 -0.061000 -0.478115 
0.227750 -0.304115 0.337119 
0.159352 -0.183430 0.369663 
0.147349 -0.176371 -0.182253 
0.082074 -0.305188 0.477675 
0.177926 -0.058407 -0.044479 
-0.219010 -0.111982 0.253176 
0.212148 -0.155097 -0.415529 
-0.069638 0.006886 0.224028 
0.121950 0.122603 -0.212412 
0.101402 -0.021512 -0.098515 
-0.066454 0.312920 -0.097786 
0.138951 0.153542 -0.182503 
-0.031658 -0.072072 0.151135 
-0.060416 -0.022272 0.111049 
0.095189 -0.095413 -0.014270 
-0.070567 0.309899 -0.094949 
0.184501 -0.035768 -0.219909 
0.186499 0.086359 -0.471918 
0.136650 -0.280129 0.354848 
0.185211 0.009320 -0.348186 
0.197438 -0.151208 0.131534 
-0.044899 -0.098012 0.268643 
0.011929 -0.141180 0.213225 
0.172976 0.020269 -0.232708 
0.210909 0.080393 -0.419553 
0.163839 -0.123619 0.001692 
0.199461 0.084433 -0.394358 
0.178259 0.088337 -0.369252 
-0.012601 0.177379 -0.015736 
-0.338970 -0.178879 0.237957 
0.127940 0.144709 -0.143890 
0.060775 -0.291861 0.402472 
0.248524 -0.020986 -0.487141 
0.033140 -0.083168 0.111871 
0.093282 -0.132306 0.251705 
0.113847 -0.228552 0.426863 
0.198138 -0.147891 0.153026 
0.224217 -0.051575 -0.409177 
0.048169 -0.094697 0.080001 
0.165940 0.232200 -0.287703 
0.269097 -0.221034 -0.102493 
-0.072849 0.286295 -0.047652 
0.017034 0.280958 -0.255491 
0.166747 0.262169 -0.399963 
0.160060 -0.240987 0.157877 
-0.056590 -0.275776 0.468340 
0.227730 -0.140428 -0.099082 
0.109327 0.093106 0.112948 
-0.262094 -0.130270 0.228400 
0.026669 0.266444 -0.225541 
0.289472 -0.194515 -0.241684 
0.147378 -0.006339 -0.193220 
0.058720 0.272937 -0.306082 
0.227886 -0.268271 0.284935 
0.112746 0.072364 0.114234 
0.164839 0.021267 -0.174185 
0.218211 -0.195260 0.324920 
0.212228 -0.068725 0.202056 
0.179418 0.090554 -0.293377 
0.186211 0.028373 -0.308226 
0.233936 -0.103617 -0.381806 
0.208581 0.245010 -0.342640 
0.002213 0.147429 -0.005883 
0.158869 -0.164181 0.059299 
0.184914 0.016275 -0.355705 
0.196660 0.098328 -0.379845 
0.219237 -0.021959 -0.497139 
0.194503 -0.206508 -0.086884 
0.039031 0.109320 0.138381 
0.035700 -0.311463 0.451046 
-0.338860 -0.227141 0.229296 
0.190074 -0.060421 -0.410586 
-0.039814 0.043360 0.134564 
0.256866 -0.278657 -0.126786 
0.089780 -0.062232 -0.082426 
-0.221883 -0.203006 0.284600 
0.159044 0.059829 -0.253033 
0.077151 0.241521 -0.199905 
0.082967 -0.196629 0.218486 
-0.342797 -0.209773 0.247548 
0.046045 -0.070094 0.027247 
0.057847 -0.002726 0.103755 
0.069126 0.118233 0.075063 
0.187533 -0.012083 -0.271979 
-0.130298 -0.080127 0.259581 
0.187516 -0.026434 0.064949 
0.190917 -0.065253 0.182583 
0.022968 -0.009106 0.116311 
-0.325224 -0.235456 0.219026 
0.166612 -0.001636 -0.148383 
0.207693 0.150443 -0.384811 
0.105078 -0.111724 0.136873 
0.224627 0.089534 -0.440657 
0.184414 -0.050405 -0.365444 
0.345746 -0.283567 -0.272863 
0.013043 0.283717 -0.152639 
0.057302 0.156741 0.008328 
0.190242 0.012705 -0.468025 
0.288619 -0.234415 -0.390361 
0.135495 0.104072 -0.093599 
0.025581 -0.063106 0.040168 
0.213777 0.161634 -0.459881 
0.043508 0.265966 -0.182206 
0.294634 -0.151403 -0.432319 
-0.048730 -0.065614 0.178110 
0.216502 0.076862 -0.429943 
0.196014 -0.043416 -0.270579 
-0.026936 0.294954 -0.068890 
0.148002 0.078689 -0.237897 
-0.025925 0.171532 0.042079 
0.046877 -0.182225 0.304222 
0.008376 0.242967 -0.080752 
-0.299855 -0.213757 0.227581 
-0.184984 -0.243249 0.301723 
0.190368 -0.014103 0.078466 
0.292796 -0.196120 -0.266144 
0.345628 -0.295147 -0.261423 
0.074441 0.325451 -0.271357 
0.084742 -0.253728 0.454051 
-0.023339 0.313770 -0.207119 
-0.056915 -0.067334 0.230139 
0.080838 0.209007 -0.222999 
0.248876 -0.140033 -0.333046 
0.164008 0.200878 -0.438941 
0.166318 -0.103096 0.214089 
0.135067 0.065156 0.112178 
0.138372 0.014991 0.108260 
0.079086 0.169913 -0.179295 
0.141472 0.055083 -0.208267 
0.036467 0.241745 -0.136724 
0.172763 -0.245011 0.136413 
0.295462 -0.321514 -0.207535 
-0.337207 -0.197222 0.264772 
0.095446 0.030371 -0.098255 
0.196827 -0.091968 -0.084723 
0.329130 -0.244101 -0.342361 
0.031210 0.160914 -0.091037 
0.179558 0.059903 -0.340572 
0.340480 -0.310809 -0.264414 
0.160301 -0.149507 0.306593 
-0.214338 -0.284017 0.321158 
0.193871 -0.139931 0.246056 
-0.000283 -0.003320 0.129705 
0.064838 -0.214629 0.270799 
0.217892 -0.127331 -0.096063 
0.193797 -0.037743 -0.452312 
0.274631 -0.176345 -0.297905 
0.143818 -0.102649 0.173744 
0.102200 0.078384 -0.141018 
0.218380 -0.193785 -0.064818 
0.187454 -0.079338 -0.066703 
0.010549 0.158087 0.080923 
0.151798 0.033177 -0.002389 
0.272930 -0.202018 -0.136264 
0.101394 -0.130881 0.251091 
-0.029508 -0.283424 0.409516 
-0.286191 -0.263790 0.240950 
0.011108 0.123433 0.010967 
0.059907 0.212199 -0.127893 
0.144815 -0.164044 -0.106866 
0.181767 0.058617 -0.356730 
0.122214 0.254791 -0.254715 
-0.034143 -0.011687 0.089027 
0.008308 0.268314 -0.197750 
0.307762 -0.220962 -0.249717 
0.071564 -0.243030 0.335296 
0.147774 0.099882 -0.147177 
-0.013400 0.277512 -0.188342 
0.004044 -0.171589 0.257150 
0.154578 0.028142 -0.028330 
-0.037301 0.307281 -0.069354 
0.101074 -0.210668 0.378162 
0.107746 -0.113318 -0.071301 
0.109321 -0.124744 0.134684 
-0.180126 -0.100591 0.212993 
0.202579 -0.067692 -0.264857 
0.165580 -0.120763 -0.005011 
0.190639 -0.169396 0.108836 
0.189622 0.106693 -0.340271 
0.167224 0.016884 0.051465 
0.118607 -0.137625 0.181915 
0.201434 -0.075161 -0.204915 
0.167805 0.129309 -0.238134 
0.272099 -0.275985 -0.071610 
0.167887 0.150832 -0.442863 
0.096779 -0.105525 0.047938 
0.037127 0.041182 0.116220 
0.015621 -0.110209 0.144519 
0.152079 0.121112 -0.277422 
0.029107 -0.306720 0.431414 
-0.038794 -0.112707 0.207523 
0.155978 0.279505 -0.377097 
0.247570 -0.060007 -0.488076 
0.195695 -0.253390 0.244842 
-0.000140 0.086506 0.069366 
0.118521 0.231763 -0.238044 
0.014700 0.081689 0.038803 
0.172779 0.002986 -0.214306 
0.222061 -0.086014 -0.363173 
0.156994 0.058760 -0.247057 
0.083697 -0.169624 0.171912 
0.166424 0.022233 -0.250300 
0.284962 -0.186119 -0.314018 
0.215237 -0.104913 -0.141230 
0.153166 0.059417 -0.120457 
-0.002672 0.086066 0.075917 
0.213530 -0.068527 -0.348843 
0.195344 -0.078990 -0.112730 
-0.146327 -0.274135 0.362493 
-0.146655 -0.272440 0.387138 
-0.193648 -0.257077 0.339686 
0.039852 0.083603 -0.015767 
0.071327 -0.159385 0.188612 
0.148780 0.188060 -0.397940 
-0.026519 -0.122525 0.268246 
0.257851 -0.297899 -0.239096 
0.180369 -0.103996 0.283102 
0.190449 0.013720 -0.438513 
0.234165 -0.266562 -0.282564 
0.070858 -0.204823 0.244003 
-0.019782 0.136544 0.062801 
0.154855 0.118894 -0.282552 
-0.045133 -0.074331 0.117339 
0.209538 0.015649 -0.404677 
0.154096 0.093820 -0.263260 
0.018600 -0.195446 0.275642 
0.010486 0.309350 -0.258130 
-0.065941 -0.110939 0.257467 
-0.009079 0.055917 0.156540 
0.314010 -0.240155 -0.228910 
0.229711 -0.118635 -0.162311 
-0.173001 -0.096426 0.211257 
0.106718 0.285477 -0.363855 
0.258218 -0.136811 -0.385027 
-0.034323 -0.028896 0.179020 
0.182032 0.087555 -0.425752 
0.106356 -0.151422 0.167672 
0.251451 -0.252192 -0.343797 
0.154889 -0.090024 -0.254541 
0.133876 0.251040 -0.265669 
0.016702 0.130211 -0.011513 
0.190113 -0.019796 -0.275628 
0.181225 -0.266364 0.456877 
-0.331376 -0.218442 0.218319 
-0.114103 -0.299852 0.427426 
0.163448 -0.252540 0.185251 
0.124137 -0.192363 0.361520 
0.218469 -0.225767 -0.231953 
0.146831 -0.182565 0.360498 
0.166381 -0.201836 0.415531 
0.096684 -0.099610 -0.099576 
0.190559 0.065803 -0.364395 
0.192890 -0.130725 -0.407042 
-0.091960 -0.068463 0.143764 
0.184531 -0.293761 0.341479 
0.191296 0.027870 -0.345312 
0.065561 -0.009895 0.102484 
0.122330 -0.231640 0.461672 
-0.140144 -0.158303 0.245527 
0.221286 -0.180213 -0.348341 
0.051797 -0.268657 0.470934 
0.010729 -0.141183 0.237890 
0.188919 -0.247768 0.205225 
0.168913 -0.091118 -0.301687 
0.132659 -0.164755 0.108642 
0.127631 -0.121927 0.198994 
0.082272 -0.227520 0.286191 
0.061168 -0.260883 0.447518 
0.137359 0.297921 -0.330099 
-0.005274 -0.032856 0.060917 
0.208125 -0.205012 -0.267093 
0.271039 -0.172004 -0.298052 
-0.023967 0.203489 -0.013958 
-0.006389 0.324228 -0.214415 
0.155200 0.071629 -0.157563 
0.141173 0.060510 0.111900 
0.211341 0.043505 -0.497874 
0.049518 -0.158546 0.186050 
0.056709 -0.175389 0.290736 
0.062688 0.327516 -0.272374 
0.039475 0.208344 -0.077454 
0.185233 -0.029918 0.055934 
0.187407 -0.061726 -0.396180 
0.199146 -0.215641 0.219111 
0.178669 -0.065420 -0.292073 
0.141061 -0.178269 -0.142795 
-0.262078 -0.132185 0.265653 
0.140860 0.027899 -0.189849 
0.038189 0.044118 0.004271 
0.067962 -0.278606 0.390057 
0.279196 -0.181357 -0.231277 
0.155051 -0.195374 0.116005 
0.044275 -0.059963 0.106900 
0.068978 0.257237 -0.283022 
-0.308722 -0.267413 0.301111 
0.045029 -0.148926 0.188130 
0.097091 -0.252648 0.334551 
-0.021921 0.259818 -0.126319 
0.187816 -0.187559 0.166390 
-0.021865 0.190385 0.010879 
0.205163 0.182308 -0.345577 
0.204937 0.250721 -0.326206 
-0.093790 -0.115540 0.205303 
0.096229 0.320294 -0.301675 
0.177710 -0.014354 -0.220447 
0.046611 0.042134 -0.011261 
0.244304 -0.257383 -0.180148 
-0.170634 -0.220684 0.287480 
0.031308 0.236635 -0.181996 
0.297658 -0.185726 -0.424948 
0.273814 -0.216448 -0.119320 
0.192492 -0.256828 0.256877 
0.190756 0.005217 -0.446806 
0.209144 0.241859 -0.351527 
0.027148 0.279741 -0.170685 
-0.111566 -0.060236 0.258225 
0.263222 -0.096537 -0.471863 
0.129539 0.023168 -0.161847 
0.003329 0.117840 0.123608 
0.135813 -0.114567 0.189777 
-0.012024 0.206974 0.002571 
0.114894 -0.134661 0.085142 
0.240997 -0.042873 -0.493624 
0.018887 -0.075621 0.070965 
0.016613 0.125437 0.119839 
0.245835 -0.210975 -0.397151 
0.184632 -0.091086 0.228832 
-0.108574 -0.125135 0.216471 
0.149186 0.052335 -0.057734 
-0.224717 -0.173376 0.270905 
0.242531 -0.278752 -0.230757 
0.208522 0.032803 -0.411866 
0.200627 -0.056117 -0.275646 
-0.235446 -0.250169 0.324007 
-0.231742 -0.297922 0.363321 
-0.272709 -0.141969 0.228432 
0.064478 -0.135088 0.250040 
0.186154 0.259536 -0.382877 
-0.287401 -0.241664 0.235879 
0.121774 0.133642 -0.104476 
0.300440 -0.175838 -0.423164 
0.232900 -0.194713 -0.381007 
0.106700 -0.139775 0.200457 
0.306275 -0.253261 -0.168916 
0.192189 -0.029568 -0.474712 
0.218986 -0.234073 -0.284770 
0.207120 -0.150111 -0.415291 
-0.284318 -0.256222 0.241556 
-0.072317 -0.294816 0.455473 
0.261797 -0.304011 -0.283609 
-0.032527 -0.029365 0.085400 
-0.042801 0.010060 0.194574 
0.211420 -0.308913 0.382874 
-0.251818 -0.248098 0.321179 
0.190178 -0.234481 0.189785 
0.153791 0.201583 -0.429148 
0.013224 -0.131259 0.182327 
0.090687 -0.099367 0.038912 
0.184002 -0.046740 -0.325242 
0.109991 0.232134 -0.228472 
-0.321352 -0.223380 0.289823 
-0.120789 -0.109428 0.188747 
0.118229 -0.126408 0.257098 
0.331116 -0.248905 -0.322104 
0.186167 -0.035837 -0.376293 
0.267998 -0.158857 -0.360504 
0.121536 0.290590 -0.283708 
0.158604 -0.308139 0.392033 
0.186205 -0.057234 -0.385169 
0.234891 -0.010435 -0.495036 
0.193131 0.201475 -0.442676 
-0.019219 0.273588 -0.168752 
0.176571 -0.042865 -0.101890 
0.160245 0.211981 -0.432326 
-0.042654 -0.304071 0.421050 
0.192227 -0.079854 -0.089460 
0.039159 -0.307105 0.431864 
0.027732 -0.142421 0.176396 
-0.025012 -0.109694 0.256177 
0.182394 -0.065510 -0.067169 
0.188535 -0.227739 -0.155390 
0.226308 -0.233517 0.265197 
-0.197579 -0.219386 0.299662 
0.280755 -0.178474 -0.340861 
0.097312 0.158249 -0.090557 
0.163148 -0.289699 0.351019 
0.086813 0.320449 -0.269051 
0.159982 0.013385 -0.112028 
0.078932 -0.135460 0.125414 
0.213119 -0.090775 0.163862 
0.258992 -0.106179 -0.430690 
-0.005412 0.253299 -0.069261 
0.192332 -0.138104 0.098883 
0.226609 -0.087767 -0.381152 
0.185304 -0.028651 -0.341575 
0.098295 -0.207848 0.218612 
0.251732 -0.207974 -0.074144 
0.201005 -0.246190 -0.144763 
-0.007451 -0.096408 0.142623 
0.011920 0.201790 -0.109947 
0.169811 -0.211982 0.095531 
0.084550 -0.136764 0.223332 
0.177252 0.051471 -0.266971 
0.160487 -0.101525 0.292965 
0.224334 -0.111590 -0.175751 
0.173446 0.139533 -0.257677 
0.171722 -0.174299 -0.084313 
-0.166711 -0.102330 0.255733 
0.255166 -0.272680 -0.330560 
0.121409 -0.151702 0.106625 
0.288050 -0.221227 -0.156710 
0.122158 0.098714 -0.196651 
0.184208 -0.031689 -0.227134 
-0.080424 0.291075 -0.070829 
0.027793 -0.102705 0.125318 
0.200420 0.253311 -0.359012 
0.047263 0.161440 0.016165 
0.142721 0.021362 -0.190946 
-0.040038 -0.272979 0.405352 
0.195504 -0.115516 0.096289 
-0.269864 -0.122317 0.253898 
0.122830 -0.141097 -0.224243 
0.045365 -0.073887 0.037895 
0.073248 -0.226269 0.359894 
0.135129 -0.237338 0.482817 
-0.275334 -0.131018 0.229773 
0.173094 -0.195316 -0.105842 
0.149684 0.035675 0.011335 
0.212203 -0.254700 0.264310 
0.255448 -0.172138 -0.125093 
0.118043 0.077932 0.043642 
0.161950 0.124866 -0.309202 
0.060163 -0.000695 -0.027721 
0.201230 -0.133911 -0.064543 
0.071049 -0.116324 0.102100 
0.078514 0.207221 -0.153230 
0.123287 0.068837 0.059847 
0.147394 0.062284 -0.062533 
0.193523 -0.207724 -0.195993 
0.216870 -0.084458 0.214328 
0.116041 0.067501 -0.160973 
0.229969 -0.038386 -0.427588 
-0.201331 -0.212957 0.268833 
0.104403 0.234506 -0.320567 
0.146320 -0.078319 -0.218558 
0.123116 -0.156508 0.324049 
0.193554 -0.077263 -0.428211 
0.137045 -0.163294 -0.179677 
-0.139429 -0.268451 0.376231 
-0.007788 0.161364 0.073012 
0.135132 -0.249076 0.251670 
-0.042643 -0.104211 0.268393 
0.290610 -0.291859 -0.139336 
0.009639 0.275143 -0.219905 
-0.262990 -0.304740 0.311321 
0.164091 0.152407 -0.402516 
-0.056763 -0.090645 0.269727 
0.164251 -0.007709 -0.091213 
0.322781 -0.266773 -0.215289 
0.236963 -0.126774 -0.252630 
0.171499 -0.003331 -0.254731 
0.060376 0.192477 -0.086138 
0.157129 0.141713 -0.313898 
0.290321 -0.184510 -0.354250 
0.140333 -0.061205 -0.190809 
0.172730 -0.053786 0.150874 
-0.219245 -0.312836 0.359337 
0.223888 0.174483 -0.429341 
0.051984 0.080092 0.131319 
-0.166178 -0.194607 0.263880 
0.223542 0.084900 -0.485529 
0.143862 0.189183 -0.364313 
-0.240129 -0.113847 0.244511 
0.181386 0.194637 -0.283443 
0.028403 0.035953 0.021834 
0.146816 0.245999 -0.277512 
0.141154 -0.260836 0.300089 
-0.163481 -0.259305 0.328813 
0.108948 -0.088962 0.130367 
-0.016064 -0.026787 0.148808 
0.189102 -0.241122 0.123866 
0.183347 -0.086787 0.037258 
0.198265 -0.142950 0.199514 
-0.158139 -0.305929 0.377687 
-0.329288 -0.204530 0.218948 
0.186755 -0.148715 0.079964 
0.063983 0.114785 -0.095866 
0.178638 0.074371 -0.289347 
-0.266204 -0.254820 0.329902 
0.173335 -0.041576 -0.049724 
0.115084 -0.120176 -0.071394 
0.026905 0.108931 0.138839 
0.118083 -0.074076 -0.151108 
0.284273 -0.315061 -0.210563 
0.158330 -0.310228 0.451823 
0.167522 -0.025408 0.133051 
0.153478 -0.305624 0.393910 
0.133551 0.242965 -0.259382 
0.186169 -0.182738 0.093905 
0.187679 -0.124694 -0.397650 
-0.216502 -0.272704 0.309892 
0.184011 -0.254561 0.461223 
-0.064379 -0.017652 0.116038 
0.201639 -0.148529 -0.397288 
0.296572 -0.266950 -0.358687 
0.164694 0.079409 -0.282634 
0.217424 -0.278300 0.413077 
-0.072169 -0.105758 0.200194 
-0.051482 0.034092 0.192933 
0.318306 -0.324862 -0.195658 
0.271671 -0.212104 -0.413667 
0.161956 0.111243 -0.212675 
-0.059499 0.269602 -0.068889 
-0.053246 -0.064742 0.246559 
-0.031824 -0.059509 0.155541 
0.008944 0.258145 -0.112202 
0.190703 -0.290104 0.445377 
0.034859 0.246476 -0.142579 
0.237075 -0.283642 0.304636 
0.343047 -0.280167 -0.245276 
0.240005 -0.194921 -0.413498 
0.157931 0.022261 0.009365 
0.206381 0.249737 -0.335416 
0.190184 0.030161 -0.459067 
0.188036 -0.192352 0.149740 
0.090695 0.170339 -0.102498 
0.105389 -0.125649 -0.149204 
0.145169 0.050649 0.072388 
0.305852 -0.326892 -0.214472 
0.204935 -0.221993 0.419905 
-0.321582 -0.242728 0.290037 
0.048243 0.159327 -0.119374 
0.212777 -0.041684 0.142395 
0.108914 0.105856 -0.004868 
0.236864 -0.252573 0.285210 
0.165617 0.277611 -0.371485 
-0.033090 -0.287459 0.410936 
0.198088 -0.084361 0.253414 
0.031068 0.324444 -0.264370 
0.158712 -0.241071 0.164760 
0.203654 -0.011361 -0.362610 
-0.000295 0.171146 0.058987 
-0.087997 -0.107494 0.246116 
0.322621 -0.249148 -0.246992 
0.157277 -0.110287 0.226016 
0.152698 0.056021 -0.107221 
0.189645 0.102158 -0.476607 
0.117532 0.283444 -0.273306 
0.018094 0.194935 -0.111953 
0.180923 0.034708 -0.284346 
-0.011439 -0.268763 0.425828 
0.162137 0.042432 -0.176227 
0.092086 -0.088602 0.122254 
0.197802 0.241891 -0.394232 
0.122299 -0.150127 -0.160990 
0.213346 -0.026644 -0.386018 
0.179684 -0.072280 -0.033184 
-0.205290 -0.208016 0.290112 
-0.066774 -0.048880 0.261238 
0.178335 0.162245 -0.270156 
0.281891 -0.183493 -0.273978 
0.122185 0.106243 -0.201846 
0.043804 0.307103 -0.208410 
0.281115 -0.163504 -0.388243 
0.127892 0.065336 0.049501 
0.237287 -0.105657 -0.387166 
-0.028415 -0.081159 0.149607 
0.179783 0.012936 -0.255519 
0.056977 0.227235 -0.207907 
0.162481 0.176665 -0.247202 
0.225668 -0.118404 -0.142394 
0.025137 0.241294 -0.115087 
0.055817 0.221664 -0.198914 
0.145929 0.137510 -0.182186 
0.056207 0.076476 -0.047065 
0.041047 -0.022291 0.004880 
0.145954 0.153751 -0.294455 
0.011862 0.272009 -0.213824 
0.204560 0.167123 -0.362099 
0.086913 0.318288 -0.314340 
-0.167395 -0.269273 0.364212 
0.124851 -0.073451 -0.166598 
-0.051009 0.274491 -0.110668 
0.206751 -0.050642 -0.328866 
0.179245 -0.061130 -0.049609 
0.172130 -0.138974 -0.315332 
-0.076215 0.022869 0.185997 
0.204832 0.009588 -0.385424 
-0.022609 -0.307043 0.433711 
0.198135 -0.058010 -0.470087 
0.095956 0.097751 -0.144155 
0.162352 0.084221 -0.279162 
0.207888 -0.204911 -0.294133 
0.198643 -0.227375 0.430643 
-0.319950 -0.148318 0.251249 
0.155946 -0.187209 -0.177072 
-0.023898 -0.283033 0.473111 
0.228524 -0.113794 -0.310890 
0.331480 -0.249532 -0.334100 
0.078130 -0.194095 0.220582 
0.052583 -0.038536 -0.009587 
0.232325 -0.092075 -0.391394 
0.107758 0.296923 -0.272315 
0.184389 0.099564 -0.317973 
0.026532 0.096929 0.003020 
-0.063580 0.032418 0.188611 
-0.045016 -0.023856 0.219485 
0.018863 -0.196261 0.290378 
-0.126196 -0.067330 0.191473 
0.269992 -0.159905 -0.365748 
0.108234 -0.107367 0.029268 
-0.022402 -0.118728 0.189919 
0.122033 -0.318438 0.449858 
0.183597 0.252838 -0.398046 
0.219614 0.072299 -0.436614 
0.167168 -0.023138 -0.048599 
0.043726 0.118122 -0.057673 
0.297459 -0.196387 -0.324895 
0.263932 -0.161409 -0.264388 
0.022186 -0.307136 0.433446 
0.223613 -0.056812 -0.402920 
0.119982 -0.257437 0.320507 
0.143728 0.150123 -0.282638 
0.019049 0.258097 -0.195420 
0.056997 0.127627 -0.096616 
-0.248919 -0.235657 0.307364 
0.081347 0.244631 -0.207831 
-0.044039 -0.072386 0.112049 
0.042292 -0.053295 0.010331 
0.059405 -0.312786 0.445951 
0.318651 -0.223204 -0.345324 
0.115535 -0.238118 0.259150 
0.223838 -0.245785 -0.268695 
0.160733 0.248485 -0.295122 
0.132668 -0.274112 0.345854 
0.025580 0.029760 0.117655 
0.035636 -0.176495 0.229893 
0.110809 0.157847 -0.123947 
0.137849 -0.258105 0.294289 
0.085009 0.117215 0.031458 
0.210879 0.135531 -0.400064 
0.079591 0.014224 -0.063922 
0.122272 -0.129945 -0.082107 
0.183257 0.082249 -0.427117 
0.218834 -0.187275 -0.333524 
0.183856 -0.004162 -0.309624 
0.175011 -0.096829 -0.347083 
0.016644 -0.140002 0.183163 
-0.058485 -0.003155 0.232618 
-0.024846 -0.094936 0.137695 
0.172982 -0.002625 0.128828 
0.282719 -0.268125 -0.351570 
0.098801 -0.232608 0.417492 
-0.163835 -0.112417 0.254539 
0.099270 -0.190471 0.340026 
0.172473 0.044082 -0.244885 
0.060062 0.060185 -0.045538 
0.177669 -0.020191 0.040845 
-0.287619 -0.117697 0.252330 
0.233647 -0.265984 -0.273954 
0.160926 -0.199245 -0.145879 
0.092157 -0.101873 0.125415 
0.186491 0.125500 -0.313397 
-0.051556 -0.073449 0.208301 
0.288025 -0.170866 -0.387693 
0.030166 -0.186954 0.299893 
0.082300 0.277111 -0.340845 
0.121662 -0.311070 0.466646 
0.149628 -0.160264 -0.246956 
-0.042590 -0.088599 0.174823 
0.159975 0.156143 -0.230125 
0.133795 0.088157 -0.044945 
0.030878 0.216050 -0.076162 
0.055184 -0.219102 0.298959 
-0.046085 -0.082946 0.131270 
0.206045 -0.092371 -0.460347 
0.246373 -0.178352 -0.093288 
0.135610 0.228156 -0.403126 
0.185247 -0.051702 0.044039 
0.114817 -0.244566 0.282914 
-0.035613 0.260962 -0.028580 
-0.310279 -0.260884 0.235503 
-0.080691 -0.048574 0.136025 
0.163269 0.013486 0.016715 
0.218631 -0.082277 0.205830 
0.256902 -0.171320 -0.449355 
0.076898 -0.078066 -0.040603 
0.205746 -0.153090 -0.397541 
0.178730 -0.098886 0.025199 
0.155014 0.087301 -0.260790 
0.185455 0.055140 -0.406223 
-0.001430 0.074306 0.080508 
-0.301442 -0.195185 0.226220 
-0.273347 -0.216407 0.241460 
0.056116 0.121056 0.110242 
0.340817 -0.271062 -0.252568 
0.196481 -0.073386 -0.157731 
0.216516 -0.158154 -0.418203 
0.144777 -0.121406 0.307333 
0.182954 -0.031207 0.150399 
0.190979 -0.218913 0.193034 
0.241436 -0.024104 -0.492216 
0.179112 -0.013323 0.138219 
-0.000397 0.207675 -0.093822 
-0.034101 -0.099692 0.254060 
0.118740 -0.289771 0.382836 
0.236239 -0.179862 -0.430421 
-0.073026 -0.273710 0.426906 
0.211327 -0.240724 -0.089464 
0.186099 -0.057171 0.047736 
0.111962 -0.105722 -0.007136 
0.198561 -0.028237 -0.313996 
0.171875 0.098613 -0.319991 
0.048991 0.058605 0.119631 
0.082607 -0.305492 0.424010 
0.049857 0.304875 -0.306224 
-0.022828 -0.276601 0.471994 
-0.155687 -0.236582 0.316444 
0.242385 -0.147971 -0.123548 
0.112679 -0.106756 -0.017522 
0.173376 -0.099378 0.225359 
0.164883 0.263791 -0.311322 
0.059179 -0.309164 0.436785 
0.129669 -0.117399 -0.024269 
0.175429 -0.075915 -0.292653 
0.233991 -0.145647 -0.457395 
0.054302 -0.159652 0.183524 
0.109580 -0.258728 0.333883 
0.185819 -0.020816 -0.373029 
0.063574 -0.192940 0.231862 
0.050265 -0.004711 -0.010872 
-0.343935 -0.232803 0.249219 
0.112830 0.303435 -0.282652 
-0.278075 -0.286874 0.277901 
-0.023529 0.285007 -0.072761 
0.188970 0.047178 -0.437702 
0.293050 -0.196722 -0.274218 
0.139405 0.064395 -0.016680 
0.192858 -0.034054 -0.478221 
0.159858 -0.276401 0.476705 
0.156653 0.037885 -0.122633 
0.178748 -0.202456 -0.188185 
0.224140 0.098537 -0.438446 
0.109573 0.113210 -0.021586 
0.199684 -0.169015 0.260859 
0.019383 0.249084 -0.117239 
0.251090 -0.242379 -0.057346 
0.151919 0.209420 -0.258020 
0.263879 -0.288024 -0.081704 
0.120061 0.246863 -0.383816 
0.077538 0.215215 -0.164310 
-0.011792 0.091967 0.088223 
0.185261 -0.140963 0.067917 
-0.122122 -0.062198 0.191144 
0.158103 -0.135351 0.296057 
0.070513 0.111312 0.118784 
0.137852 0.145664 -0.170326 
-0.204844 -0.280331 0.371647 
0.121023 0.252476 -0.385655 
0.235585 -0.057777 -0.494495 
0.238550 0.061929 -0.471304 
0.180894 -0.060746 -0.343548 
0.166198 0.139745 -0.372442 
0.193010 -0.149163 -0.333145 
0.096381 -0.256296 0.496111 
0.169186 -0.119467 -0.342336 
-0.226615 -0.197565 0.281313 
0.210697 -0.088074 -0.228419 
0.203304 -0.172433 0.258102 
0.313226 -0.201991 -0.383064 
0.142108 -0.062988 -0.196222 
0.219912 -0.098194 -0.313614 
0.176578 -0.014038 -0.214766 
-0.005196 -0.002348 0.134218 
0.331487 -0.325550 -0.223467 
-0.026698 0.290360 -0.064813 
0.163257 0.270005 -0.390891 
0.065964 -0.056003 -0.028226 
0.300877 -0.203526 -0.294279 
0.082241 0.174839 -0.092578 
0.165608 0.245686 -0.297527 
0.193576 -0.227617 0.437515 
-0.189946 -0.264219 0.349157 
0.022574 -0.195358 0.296516 
0.220882 0.146917 -0.462228 
0.289186 -0.293782 -0.104610 
0.131349 0.300552 -0.336316 
0.215227 0.068440 -0.429481 
0.131950 0.011293 0.105076 
0.184975 -0.006285 -0.315570 
0.060539 -0.154944 0.185234 
0.176560 -0.046897 0.150724 
0.253453 -0.298133 -0.261733 
0.039902 -0.039927 0.008908 
-0.020991 -0.304953 0.427699 
0.189915 0.060150 -0.478604 
0.006481 0.316926 -0.249582 
0.191888 -0.075308 -0.103555 
0.345140 -0.296609 -0.255129 
-0.025706 0.156636 0.035140 
0.111815 0.127547 -0.197646 
0.197906 0.126384 -0.369248 
0.188226 -0.187322 0.153333 
0.105620 -0.282688 0.377844 
0.023258 -0.176083 0.239822 
0.185832 -0.184559 0.376465 
0.198621 0.092707 -0.388575 
-0.011507 0.032392 0.080272 
0.281420 -0.234141 -0.119735 
0.185790 -0.015113 -0.348297 
0.248823 -0.139257 -0.338538 
-0.228540 -0.295416 0.317022 
0.121065 -0.027625 -0.136097 
0.122881 0.231915 -0.242739 
0.072250 0.260595 -0.301415 
0.185867 0.123874 -0.470715 
-0.152250 -0.124683 0.208676 
0.224562 -0.098487 -0.352301 
0.188113 -0.162391 0.229570 
0.237240 -0.273852 -0.261411 
0.132801 0.203276 -0.346873 
0.176871 -0.093216 0.002848 
0.125627 -0.124551 0.211703 
-0.284815 -0.230580 0.303221 
0.219711 -0.098998 -0.284500 
0.193077 -0.244761 -0.122420 
0.172691 -0.199286 -0.110458 
0.191792 -0.254571 0.147472 
0.183142 -0.041156 0.039960 
0.208291 -0.203056 -0.274140 
-0.330109 -0.174699 0.224097 
-0.122402 -0.099939 0.181512 
0.192192 -0.035766 -0.263207 
0.063767 0.305458 -0.321479 
0.076959 0.151922 -0.025648 
0.161660 0.122067 -0.216846 
0.220683 0.014543 -0.497565 
0.089398 0.118440 0.017992 
0.185434 0.181554 -0.458089 
0.192078 -0.022455 -0.458108 
0.081987 -0.120233 0.307527 
0.092777 0.022701 -0.089765 
0.225116 -0.122053 -0.130094 
-0.064446 -0.026573 0.250464 
0.194310 -0.110679 0.264931 
0.307626 -0.231624 -0.211685 
-0.214722 -0.288974 0.324584 
-0.013626 -0.302437 0.462219 
0.205739 0.247178 -0.356102 
0.045026 -0.177543 0.223120 
0.094163 -0.195712 0.344007 
-0.215982 -0.257427 0.335779 
0.096289 0.157089 -0.084420 
0.151419 0.084632 -0.148313 
0.114903 -0.232535 0.244360 
-0.010420 0.190257 -0.038619 
-0.035531 -0.116699 0.213931 
0.100030 0.210100 -0.191823 
-0.040333 -0.117221 0.220625 
-0.289113 -0.225614 0.233487 
0.050612 -0.062525 0.003662 
-0.002258 -0.063555 0.124476 
0.166726 0.037606 -0.209936 
0.178873 -0.061856 0.017660 
0.145896 -0.238062 0.192628 
0.166651 0.094771 -0.297670 
0.243326 -0.276563 -0.306523 
0.160587 0.073712 -0.267289 
-0.116872 -0.065451 0.180416 
-0.026725 0.277309 -0.058295 
0.122077 -0.265397 0.336900 
0.005935 0.145005 -0.009821 
-0.009293 0.319986 -0.221592 
0.076385 -0.117835 0.298481 
-0.261612 -0.290816 0.345931 
0.112045 0.314284 -0.317884 
0.075954 -0.233215 0.308177 
0.007581 0.170788 -0.053453 
0.247718 -0.231941 -0.363778 
0.249811 -0.146826 -0.167906 
0.215702 -0.180377 -0.334017 
0.225626 -0.244774 0.267917 
-0.015472 0.158173 0.070023 
-0.145294 -0.259870 0.350793 
0.185108 -0.272373 0.286034 
0.123264 0.099158 -0.031821 
0.321299 -0.269324 -0.206854 
0.114604 -0.126713 0.149770 
0.012495 -0.189197 0.278138 
-0.053841 -0.034381 0.240054 
-0.019007 0.263361 -0.060186 
0.009594 0.140580 0.104455 
0.188379 0.017591 -0.406401 
0.215079 -0.157334 -0.068272 
0.091110 -0.048368 0.110354 
0.184311 -0.197777 0.417671 
0.142206 -0.122816 0.009829 
0.174691 0.116709 -0.396443 
0.190187 0.029570 -0.473447 
0.230829 -0.169454 -0.433250 
0.224113 -0.248744 -0.079515 
0.036734 0.127953 -0.055431 
0.203791 -0.077277 -0.215228 
0.200590 0.240770 -0.389434 
0.034726 -0.014310 0.012683 
0.062602 -0.114325 0.104585 
0.195002 0.130785 -0.477154 
0.142835 -0.293304 0.481323 
0.215623 -0.244864 -0.088440 
0.223916 -0.207225 0.346266 
0.231770 0.015420 -0.448056 
0.138209 0.247632 -0.268286 
-0.042465 -0.032537 0.226285 
-0.257650 -0.121071 0.253175 
0.146886 0.041416 0.009539 
-0.022173 -0.139195 0.244995 
0.172656 -0.150367 0.043314 
0.201156 0.002076 -0.363251 
0.238885 0.010002 -0.457973 
0.149441 -0.195619 -0.131982 
0.176397 -0.081038 -0.326669 
0.173796 0.068094 -0.306706 
0.226412 -0.111522 -0.268688 
0.070167 0.092112 0.132187 
-0.046218 0.007611 0.205119 
0.202764 0.201615 -0.313423 
0.166441 -0.150605 -0.065236 
-0.184918 -0.112691 0.209076 
0.166630 -0.139348 0.290391 
-0.224415 -0.179032 0.273003 
0.253519 -0.281406 -0.102467 
0.185551 -0.265195 0.271006 
-0.016644 -0.099538 0.154871 
0.206750 0.162301 -0.373043 
0.057456 0.302801 -0.223639 
0.142723 0.219756 -0.413409 
0.096867 0.272389 -0.359595 
0.159741 0.023377 0.040604 
-0.017257 -0.269776 0.424415 
0.075062 0.239335 -0.195060 
0.115402 -0.215887 0.397496 
0.061835 0.113460 0.124865 
0.272008 -0.305826 -0.260276 
0.133650 -0.291637 0.377747 
0.043133 -0.155612 0.221506 
0.153980 0.067754 -0.245198 
0.137455 -0.248395 0.244249 
0.224893 -0.175850 -0.065600 
0.322726 -0.294360 -0.194106 
0.050163 0.251257 -0.174479 
-0.042584 -0.064309 0.096849 
0.175973 -0.052040 -0.011509 
0.295527 -0.190943 -0.424839 
0.165535 0.192392 -0.261484 
0.153130 0.180361 -0.405940 
0.153971 -0.316348 0.442276 
0.096686 0.247223 -0.225911 
0.106953 0.148062 -0.204321 
0.063490 0.163362 -0.022699 
0.143906 0.054667 -0.213456 
0.213276 -0.091534 -0.237162 
0.069823 0.174204 -0.065389 
0.036741 0.225711 -0.107322 
0.124726 -0.147376 -0.206501 
0.260935 -0.110928 -0.474410 
0.096478 0.108980 -0.153891 
0.069032 -0.012475 -0.041513 
0.140075 0.221202 -0.408523 
0.095652 -0.069608 -0.098969 
0.122457 0.086643 -0.005430 
0.023625 0.165158 0.051160 
0.222034 -0.263942 -0.109704 
0.254345 -0.234482 -0.373224 
0.225483 0.158048 -0.449851 
0.207442 -0.227157 0.420392 
-0.015882 0.253205 -0.049753 
0.161182 0.035120 -0.158479 
0.051229 -0.045141 -0.005818 
-0.102659 -0.011748 0.193192 
0.288482 -0.203695 -0.197259 
0.172426 -0.099244 0.253110 
0.139333 -0.266017 0.320648 
0.134090 -0.010908 -0.163473 
0.186787 -0.201553 0.123572 
-0.031027 -0.100217 0.247897 
0.218697 -0.038397 -0.400393 
0.216329 -0.085830 0.171468 
0.083784 0.118009 -0.137950 
0.292994 -0.182697 -0.366912 
0.036610 0.200184 -0.146523 
0.211061 -0.182520 0.272555 
0.165324 -0.279762 0.328002 
0.184016 -0.245646 0.222837 
0.177268 -0.105418 0.012289 
0.115152 -0.140685 -0.129813 
-0.294561 -0.195533 0.283004 
0.264194 -0.157795 -0.346234 
-0.246736 -0.261858 0.338535 
0.011216 -0.031873 0.127186 
0.184988 -0.248671 0.227383 
0.163830 -0.195535 -0.175989 
0.030517 0.249954 -0.140548 
-0.336601 -0.219335 0.271736 
0.271253 -0.156078 -0.378177 
0.211138 -0.182116 0.278654 
-0.013413 0.220475 -0.080666 
0.177959 -0.038673 0.023271 
0.032129 -0.192628 0.302228 
0.199951 -0.173476 0.248583 
0.000061 0.170525 -0.034637 
0.105747 0.131987 -0.190103 
0.117388 0.132637 -0.211142 
0.056566 0.129417 0.082667 
-0.214608 -0.225083 0.273478 
0.016681 0.135445 -0.019514 
0.037425 0.174345 -0.119016 
-0.025400 0.059627 0.174181 
0.039226 0.279014 -0.285219 
0.013565 0.273656 -0.142727 
-0.019395 -0.099517 0.143036 
-0.012911 0.084386 0.105277 
0.001977 -0.151575 0.267585 
0.170946 -0.097433 0.205670 
0.184379 -0.089215 0.258379 
0.211325 -0.067953 -0.332225 
0.141753 -0.174911 -0.120081 
0.007535 0.270593 -0.202727 
-0.039409 -0.082258 0.123821 
-0.296996 -0.255834 0.228870 
0.141905 -0.124029 0.015940 
0.332939 -0.313180 -0.209651 
0.064120 0.269000 -0.308841 
0.046117 -0.090846 0.074821 
0.090252 0.183049 -0.210802 
-0.025048 0.066282 0.161525 
0.261241 -0.258845 -0.349602 
-0.025264 0.315114 -0.202025 
0.035884 -0.064012 0.029358 
0.146899 0.017290 0.112871 
0.099203 0.035718 -0.107597 
0.038079 0.059880 0.000053 
0.130711 -0.118619 0.193044 
0.248404 -0.148113 -0.156579 
0.101668 -0.099697 -0.018165 
0.167261 -0.121358 -0.333827 
0.032299 0.097294 -0.009795 
0.123553 -0.115817 -0.036133 
-0.300468 -0.265778 0.235397 
0.174235 -0.050995 -0.265819 
0.102279 0.097806 0.036724 
0.116034 -0.122677 0.270896 
0.105316 -0.309910 0.426739 
0.303914 -0.326883 -0.239888 
-0.114582 -0.307928 0.412632 
0.050765 0.245260 -0.223325 
-0.039911 -0.126547 0.259322 
0.142252 0.228365 -0.414943 
0.140977 -0.143319 -0.262669 
-0.057358 0.012362 0.119489 
0.204679 -0.123776 0.172200 
0.179295 -0.041663 -0.144050 
0.038559 -0.272103 0.475910 
0.275800 -0.175499 -0.261357 
0.088007 -0.090158 -0.054438 
-0.036905 -0.111653 0.201077 
0.045930 0.107146 0.141523 
-0.053624 0.317596 -0.109479 
-0.160016 -0.272492 0.377357 
0.289750 -0.199814 -0.218052 
-0.115229 -0.114815 0.191532 
-0.308639 -0.220509 0.296387 
0.228729 0.009201 -0.440073 
0.204569 -0.255715 0.262469 
0.073154 0.120227 0.049313 
0.185270 -0.004387 -0.357976 
0.158859 -0.262021 0.251669 
-0.019776 0.050169 0.168284 
-0.019589 0.321452 -0.191152 
0.003659 -0.115122 0.161941 
0.247350 -0.272124 -0.142630 
-0.101512 -0.035122 0.173694 
0.130915 0.228954 -0.392923 
0.078444 0.317296 -0.314495 
-0.182082 -0.211450 0.297062 
0.111721 -0.147721 0.179204 
0.138938 -0.316204 0.453722 
0.102606 -0.094104 -0.129191 
-0.203648 -0.236784 0.286992 
0.152049 0.104642 -0.170336 
0.251363 -0.180230 -0.441841 
0.333276 -0.321068 -0.219893 
0.262111 -0.158615 -0.255436 
0.175690 -0.050912 -0.025385 
0.027295 0.328866 -0.228914 
0.175684 0.096084 -0.354431 
0.247230 -0.060571 -0.449702 
0.018923 -0.186084 0.259436 
0.299863 -0.219038 -0.203728 
0.097531 0.208576 -0.185476 
0.217017 -0.229693 -0.296563 
0.192402 0.173891 -0.307178 
0.260688 -0.192707 -0.111018 
0.071985 0.132346 -0.130439 
0.200301 -0.187490 -0.279878 
-0.039084 -0.077231 0.163229 
0.260319 -0.216837 -0.406732 
0.148315 0.042291 -0.010692 
0.153488 -0.224406 0.464652 
0.052246 -0.125748 0.129846 
0.245943 -0.268056 -0.321868 
0.174114 -0.154428 0.298294 
-0.024174 0.274984 -0.062690 
0.205244 -0.054033 -0.304812 
0.226614 -0.210543 -0.063707 
0.012565 -0.050596 0.046920 
0.171220 0.019766 0.063803 
-0.134434 -0.126289 0.205339 
0.158071 0.022398 -0.226500 
0.237607 -0.127970 -0.304912 
0.147454 -0.284769 0.354807 
0.262875 -0.276993 -0.192216 
-0.180697 -0.095969 0.251715 
0.184644 -0.188771 0.396750 
-0.272413 -0.280772 0.343262 
-0.153928 -0.282623 0.360598 
0.178553 -0.174704 0.363270 
0.184064 -0.192610 0.094791 
0.041556 0.076288 0.133844 
0.089028 0.096171 -0.128875 
0.226188 0.117944 -0.472380 
-0.159807 -0.249721 0.325760 
0.124267 0.283564 -0.374033 
0.241347 -0.189236 -0.423826 
0.171022 -0.162416 0.342708 
0.134628 -0.153940 0.089836 
0.293137 -0.322116 -0.229199 
0.146061 0.074017 -0.079065 
0.153533 -0.266051 0.300346 
-0.033084 0.290914 -0.051385 
-0.216834 -0.308993 0.344532 
-0.053184 -0.039122 0.096178 
0.253511 -0.101241 -0.427249 
0.108183 -0.254550 0.327339 
0.100409 -0.106617 -0.109247 
0.064555 -0.174082 0.276535 
0.171750 -0.120562 -0.360736 
0.215537 0.106145 -0.422250 
0.044002 0.182539 -0.138890 
0.268333 -0.100970 -0.452297 
0.159003 -0.319418 0.429808 
0.050236 0.131964 -0.088783 
0.102892 0.204142 -0.187649 
0.072913 0.145378 -0.002240 
0.088748 -0.153639 0.311766 
0.184930 0.089553 -0.466503 
0.148798 0.074146 -0.111655 
0.000031 0.109510 0.127487 
-0.227658 -0.262806 0.342465 
0.087741 0.181821 -0.121493 
0.264696 -0.298462 -0.204617 
0.281332 -0.293803 -0.135695 
0.200454 -0.010646 -0.346213 
0.211801 -0.075535 -0.485192 
0.235821 0.062634 -0.464857 
0.151760 0.179440 -0.390528 
0.314283 -0.298000 -0.170713 
-0.001888 0.149916 -0.001795 
0.089061 0.090491 -0.124833 
-0.077796 -0.000441 0.139709 
0.171472 -0.184201 0.371492 
0.028671 0.243905 -0.127080 
0.176661 0.259182 -0.314823 
0.106318 -0.298865 0.403988 
0.127826 -0.069190 -0.169324 
0.178582 -0.098822 -0.020157 
0.176941 0.239714 -0.302979 
0.221369 -0.175813 -0.355855 
-0.170135 -0.122018 0.255545 
0.053155 -0.113643 0.125265 
